7.73991 9.35906 0.83488
7.72921 1.36965 0.43557
5.21296 4.88241 1.87860
9.76014 2.58889 0.60082
1.25550 7.54523 0.45592
0.16948 7.21630 0.39576
7.70158 1.40885 0.46923
8.07156 8.77027 0.85318
1.20207 1.80973 0.14806
2.65583 7.97259 0.54692
0.17552 4.56980 0.24299
2.93309 3.28272 0.34688
7.73142 1.58239 0.46372
5.17961 1.67614 0.36965
3.48096 6.61891 0.52248
3.71739 5.50430 0.47579
0.01354 1.22085 0.02149
2.99801 1.12698 0.22483
6.46459 0.72311 0.35683
9.74194 7.43767 0.85010
8.47061 7.11882 0.74981
0.23595 0.58431 0.04090
8.98561 5.60270 0.73009
7.83198 0.84676 0.40788
7.80376 9.03746 0.81260
4.57996 9.07117 0.69229
3.98005 6.98233 0.56555
3.02916 9.26189 0.61836
0.65695 8.11453 0.46159
2.28235 8.28539 0.52666
2.46604 5.69708 0.40707
4.84077 3.06059 0.37673
7.47444 2.17799 0.45142
4.73810 3.27200 0.43760
0.57844 6.28495 0.36580
9.57790 1.72657 0.53737
9.42724 2.58640 0.60380
7.85190 4.68061 0.62462
9.91328 2.33050 0.60671
5.44482 5.88644 1.11931
9.62768 9.23176 0.95060
0.75605 7.48089 0.42821
3.65681 6.66427 0.52410
2.25381 5.82721 0.40164
1.95833 4.87948 0.33875
1.40803 1.86564 0.18242
6.22414 8.94710 0.76783
7.81322 2.48536 0.51638
5.78298 0.91309 0.33409
1.46963 7.50015 0.45539
8.11124 1.75616 0.48400
6.35955 3.71896 0.52036
3.88166 0.28285 0.18671
6.74130 1.37068 0.39737
2.59905 1.73204 0.22878
3.45192 0.54410 0.17714
9.17486 6.56657 0.75561
2.90505 8.37008 0.56502
4.69988 3.73315 0.38772
8.90141 8.74576 0.85638
7.07721 2.13347 0.47567
0.62203 3.25390 0.18970
1.47303 1.50737 0.17473
0.07842 6.20559 0.29010
6.30922 4.19870 0.52352
4.47673 6.13283 0.53847
1.34275 7.61675 0.42456
9.57934 5.45703 0.77245
5.29660 6.27630 0.58886
2.41893 9.35250 0.55639
5.00604 2.99064 0.39908
6.79620 3.59164 0.52711
0.76239 7.17703 0.38517
2.74704 6.11306 0.41341
8.06965 1.78533 0.49832
4.59665 3.76147 0.46213
5.46577 4.67838 1.58828
4.32816 4.19390 0.45749
0.43900 1.78275 0.09604
1.65750 9.24430 0.54940
4.45542 7.62319 0.61936
2.09185 4.81356 0.34510
0.49979 6.80061 0.35907
8.43650 8.97283 0.88499
9.81193 1.36174 0.59651
7.93143 2.50373 0.52777
8.53785 5.42701 0.68792
2.41977 7.99010 0.51670
9.60627 0.36255 0.54884
1.96926 9.84018 0.59317
9.51430 4.54907 0.69128
9.94819 3.59231 0.65412
7.11723 2.92724 0.46571
9.81144 1.74357 0.58502
5.69540 7.91574 0.69365
2.59542 9.55414 0.59954
4.36996 4.13645 0.42502
5.93561 9.52421 0.74958
0.73082 8.23798 0.45110
6.22343 4.81051 0.56133
9.81178 6.74026 0.81690
1.90108 4.34984 0.34635
7.92595 5.58723 0.65892
9.07899 0.58046 0.48864
9.43702 6.96263 0.83695
9.60136 0.52825 0.50493
5.21460 8.17085 0.66550
9.77308 8.24947 0.87255
7.57310 2.37077 0.52434
1.61671 3.23663 0.23927
4.76900 4.81310 1.86309
7.18331 5.96663 0.67095
2.47340 2.87354 0.25478
6.40615 5.92486 0.61260
6.66600 2.97787 0.50888
1.62700 0.55491 0.08675
5.65085 0.02528 0.32636
7.71627 1.01151 0.42149
4.98896 7.92251 0.62198
0.12103 9.61431 0.48941
0.09038 4.26966 0.26217
3.57029 5.12684 0.39664
9.26194 1.46848 0.53370
2.28677 5.51031 0.39938
6.34364 1.44655 0.39018
2.22076 6.11214 0.42428
3.21670 9.33259 0.61310
8.48042 1.95699 0.50988
7.28861 7.64564 0.74374
0.95399 0.23502 0.03685
4.28702 3.75497 0.40121
0.29170 1.10749 0.06218
4.80890 3.52475 0.40728
6.62434 1.73537 0.42440
1.18503 3.73305 0.20949
2.88885 4.17523 0.34862
3.97837 3.00591 0.39556
9.19531 6.56622 0.76635
9.93255 9.18852 0.98176
0.44911 4.00595 0.22385
7.61008 1.92343 0.46462
3.71724 2.70723 0.29481
3.92458 8.54001 0.62602
7.54265 5.71640 0.69202
9.18426 4.55011 0.67893
9.50929 1.49637 0.54866
5.77123 4.49727 1.17634
3.57121 2.78492 0.32462
7.87549 9.43163 0.83391
2.51001 8.84070 0.56951
5.64074 0.83903 0.35423
3.58578 5.16653 0.43688
6.56631 2.25058 0.38601
2.40399 4.10777 0.33335
1.91593 8.76848 0.53025
9.18239 5.27515 0.68629
1.01804 3.34215 0.18443
5.05958 2.07888 0.37643
2.20853 8.00325 0.49594
0.38930 6.24518 0.31357
0.36019 4.68065 0.25133
1.75222 2.17484 0.18347
8.66770 3.34246 0.60251
2.82479 9.59843 0.61711
9.50459 5.20090 0.71127
5.81622 4.00699 0.48094
4.36614 5.21422 1.44655
5.80089 7.78989 0.68038
5.16698 3.40109 0.42676
7.58776 1.78706 0.50749
2.82496 5.84936 0.44834
3.53050 6.65204 0.52618
8.94094 7.12718 0.80009
9.46457 8.81988 0.91862
8.92558 3.71174 0.62324
4.19448 0.75355 0.26295
7.80366 9.58349 0.86715
4.76336 4.35012 1.38983
4.97540 6.23258 0.56361
2.04680 6.66305 0.43513
5.91130 5.46514 0.62759
1.86136 2.05258 0.18236
3.31565 7.55143 0.52984
8.55030 8.03752 0.84327
2.07076 5.52976 0.36812
0.71158 4.88561 0.27403
0.69008 1.13938 0.06974
9.40785 0.83952 0.52220
5.06920 3.39565 0.43333
4.09412 3.10846 0.35383
8.10879 9.53656 0.89656
8.35826 7.83623 0.77256
3.32191 6.59924 0.48192
6.93618 5.17648 0.60223
7.71123 1.67368 0.44580
6.54651 9.78457 0.78158
1.51595 3.75041 0.25716
8.75883 1.06926 0.50528
5.39095 4.93799 1.82455
2.82472 8.73998 0.56729
4.25228 8.87291 0.67092
0.37571 0.10966 0.03700
1.27867 8.86296 0.53145
7.65547 2.71484 0.51151
0.00012 0.38972 -0.01648
4.16566 8.47790 0.63358
5.22510 8.63867 0.67291
0.54634 5.96231 0.31096
9.73078 5.74434 0.76773
2.26125 8.13120 0.51284
3.04199 7.86310 0.54809
3.03943 8.90105 0.61109
2.30417 5.52747 0.38423
0.01474 9.67647 0.49247
7.29345 9.96147 0.86304
9.66845 1.16545 0.56040
2.24293 8.49544 0.53315
6.63047 4.99822 0.57986
7.41896 3.87566 0.55724
8.48425 6.13072 0.72750
4.22629 0.55966 0.22363
3.02931 5.06461 0.38704
3.25295 8.70891 0.61361
7.12621 2.13462 0.44138
8.16779 4.26390 0.61520
1.81614 9.39481 0.58085
3.70941 4.28564 0.39270
9.01940 3.58368 0.64673
8.06694 4.40537 0.61179
9.84858 5.19453 0.73113
7.54248 6.31991 0.66122
3.93195 8.00693 0.62320
5.90638 4.52102 0.49863
6.61014 8.17481 0.75419
0.78456 5.33721 0.28609
5.44497 3.38481 0.46784
7.09321 6.57951 0.72777
1.67321 7.17722 0.40879
7.80632 5.58049 0.64765
5.83773 0.56615 0.33566
9.52222 1.69883 0.57131
0.42422 2.85298 0.17940
2.65326 2.82626 0.26250
6.01554 6.73421 0.67724
2.96560 0.18349 0.15982
7.14424 7.55682 0.71071
7.59005 2.65342 0.50711
1.02516 3.10022 0.18220
5.13854 5.27910 1.91391
5.08891 2.15926 0.34920
3.69281 8.84471 0.63673
9.32925 0.85369 0.49973
8.27506 4.44382 0.62364
6.97209 8.49422 0.73511
7.14327 6.15844 0.67705
4.61716 2.92330 0.40301
9.20995 4.20760 0.65256
6.94595 7.06694 0.66974
7.28981 9.73261 0.86719
8.61691 8.93139 0.84449
2.74072 3.42433 0.33264
8.07071 9.98198 0.88455
1.95241 0.03505 0.07731
3.45342 0.27630 0.19146
3.35610 8.23841 0.55896
9.78525 1.99463 0.57485
8.56537 0.60769 0.46573
7.01170 2.37148 0.42058
7.27057 4.26100 0.60943
5.62073 7.30566 0.64719
9.47091 6.24336 0.75985
4.96259 2.37621 0.34660
3.80518 5.03270 0.46173
1.63035 9.26214 0.55665
7.86206 8.15008 0.82834
7.34444 3.23190 0.51516
3.84355 9.82265 0.68924
0.25193 7.08620 0.37544
8.38997 0.62449 0.46463
0.11418 0.35161 0.04583
7.03700 1.68408 0.42171
9.70257 7.27856 0.84677
4.37661 1.83739 0.29850
2.34973 5.11487 0.37218
7.04871 0.93260 0.41303
8.17128 9.20886 0.83593
5.46430 3.43961 0.46738
9.67035 9.08132 0.91480
0.51669 9.44876 0.49212
5.04796 0.06129 0.28034
7.18454 4.64135 0.59785
8.62640 0.24656 0.45044
1.79256 9.08693 0.52036
8.00003 5.18408 0.63832
5.52707 0.74944 0.33265
3.96554 1.10277 0.24163
1.31715 3.83509 0.24771
8.65296 9.40234 0.92204
1.57273 6.92909 0.40409
3.09788 8.67619 0.59409
2.90046 3.66457 0.32911
8.71414 0.43214 0.45726
6.72703 9.74318 0.81314
7.96681 0.17173 0.39533
2.50468 9.47652 0.57749
6.24874 3.68677 0.50643
5.71746 0.10090 0.27756
8.32830 6.89157 0.78037
9.06087 9.80540 0.93882
0.12157 9.65626 0.46772
6.74020 1.60937 0.41272
0.51836 1.81248 0.10832
5.48859 5.65539 1.34629
2.87633 6.37305 0.45509
3.06777 7.39418 0.51757
3.52959 1.81050 0.29524
6.21292 9.59007 0.80032
3.34050 6.38739 0.51965
7.32699 8.47047 0.81505
4.04527 5.40066 0.45455
0.68353 4.14277 0.26111
7.83760 9.77183 0.91098
2.85758 5.82121 0.46460
4.32767 8.66874 0.66958
6.85444 9.53292 0.83872
3.32456 6.75355 0.49785
0.56586 5.48939 0.28601
3.73921 0.03511 0.18167
9.44449 0.40020 0.45894
6.41734 2.00851 0.44815
6.71479 1.86008 0.42308
6.32282 2.54759 0.46935
1.98992 3.04935 0.22733
4.18334 3.60065 0.41085
7.50940 4.20538 0.57584
1.01373 0.98866 0.07443
2.77853 0.42362 0.19265
2.76319 6.73944 0.49728
4.32019 5.37335 1.31087
9.80369 4.44144 0.71294
0.67503 6.34440 0.35976
5.18701 8.27679 0.67708
1.79365 4.27693 0.28768
9.70677 6.41119 0.79766
1.13304 9.53572 0.57265
4.03601 8.39624 0.67506
7.37885 4.26001 0.61320
7.04554 6.44717 0.68420
4.22729 1.77071 0.29314
3.46524 5.60522 0.43756
3.97612 9.81328 0.67482
2.64276 5.18315 0.38023
2.05333 9.27638 0.60951
4.83040 4.07335 1.09887
2.68534 9.98845 0.64861
2.87462 5.79220 0.41413
6.56756 0.42269 0.36737
9.68537 5.86755 0.77287
6.03637 2.74573 0.39604
0.76979 0.32481 0.06047
0.75584 8.20853 0.43138
9.51423 2.75730 0.59742
2.97291 7.96549 0.54191
0.92067 2.88218 0.18018
5.99045 1.94326 0.39600
6.23649 9.73936 0.79715
6.48505 3.61645 0.46756
2.67402 6.01376 0.46479
0.15111 6.09981 0.29288
9.65015 5.60473 0.74370
2.50893 9.14696 0.57622
6.76026 6.74441 0.67307
7.06630 4.03733 0.58436
6.10007 8.62380 0.74158
3.12907 1.81063 0.25831
2.71096 5.44237 0.41316
5.97668 9.50550 0.77874
8.66096 6.25398 0.75194
9.46734 8.16968 0.84320
1.05906 6.53561 0.37473
1.54829 8.39371 0.52034
9.44736 9.44488 1.02346
7.36535 2.72922 0.48064
8.82994 1.69661 0.53479
2.02633 4.83991 0.33189
5.87586 7.01862 0.68568
7.01140 2.27191 0.43709
6.80112 0.04101 0.35461
4.08152 3.42935 0.34740
0.15395 9.68859 0.48576
5.82926 6.94967 0.63826
2.53102 4.01325 0.34861
4.50254 1.92576 0.29987
9.57581 3.56090 0.67010
3.99035 1.69839 0.28481
8.39802 1.06306 0.47851
1.88541 9.06742 0.56681
6.72460 9.97650 0.80940
9.77007 1.64114 0.58677
1.01893 0.54523 0.06683
0.08320 3.29731 0.19094
4.33583 4.61659 1.28736
0.92625 2.04821 0.14453
7.48384 3.01425 0.51310
9.14549 2.00871 0.57418
4.34021 7.74261 0.62936
2.58712 7.12578 0.47499
4.34403 6.34952 0.51202
7.23448 3.87218 0.56922
0.09054 9.09041 0.43008
5.89454 9.69533 0.75338
6.13292 1.73639 0.37221
6.37688 2.23013 0.42204
2.42022 5.25631 0.35710
7.14053 0.91251 0.36388
0.91391 4.36448 0.24121
1.99270 5.81791 0.40338
8.77470 5.22074 0.67434
7.38723 3.30909 0.52801
0.13746 5.42446 0.31703
2.48376 9.58801 0.60261
2.14406 2.06017 0.21706
2.70806 6.54831 0.44390
2.47560 0.43397 0.18875
0.62526 0.66416 0.05365
4.58941 5.51828 1.46958
7.32733 1.04939 0.44518
6.06732 0.22347 0.31090
6.72872 1.71513 0.42315
0.81149 5.64849 0.31737
9.51491 7.03341 0.82192
8.38492 2.02479 0.52790
8.05090 6.68259 0.74773
8.22984 1.82476 0.48987
9.32711 6.13457 0.75776
5.44254 4.11960 1.03401
2.00282 6.53800 0.39902
6.16784 9.95053 0.77411
7.42881 9.37817 0.84629
7.37917 0.04282 0.38987
5.21449 8.85439 0.72086
0.68459 0.66491 0.01983
3.71113 9.53047 0.65718
9.20767 2.81826 0.57925
5.84449 3.82035 0.48612
5.38332 0.91638 0.30663
2.68854 1.12273 0.20240
3.68449 7.26741 0.54721
8.95346 9.44332 0.88192
6.66463 6.10748 0.61926
7.87387 7.15850 0.75173
4.54345 7.61970 0.60996
6.30247 2.62814 0.41842
2.48384 0.45230 0.11608
7.05461 0.01873 0.35479
4.27601 3.50649 0.36105
4.42546 2.41464 0.30863
6.49322 0.62318 0.34692
9.36281 1.79528 0.54814
0.64006 1.24499 0.07668
8.24743 9.14878 0.85574
2.92383 1.40267 0.21660
4.43919 5.37648 1.42687
0.21913 5.93106 0.30892
3.01046 5.43489 0.41466
5.02631 0.99056 0.30420
0.56176 3.18798 0.20505
4.91096 0.51270 0.28797
9.27111 3.95670 0.68715
1.05393 1.88599 0.16376
7.64441 5.61633 0.66781
4.09671 6.92808 0.54257
6.55174 5.32120 0.58589
2.60237 4.34237 0.32968
1.59492 3.87333 0.27350
1.60463 8.41692 0.51502
0.70492 2.19368 0.13042
1.85647 7.34218 0.45919
6.64219 7.57482 0.69730
8.81691 4.19200 0.65463
8.14126 2.97301 0.54473
6.85134 4.70541 0.56305
1.10432 0.93214 0.08822
2.89187 0.45930 0.17763
3.09807 1.11603 0.20877
2.49957 1.87145 0.20998
5.15006 5.04177 1.97886
5.35554 8.49137 0.68405
3.56886 2.35642 0.31879
3.53789 9.35162 0.62500
8.28556 9.54908 0.88799
7.89293 9.58905 0.84600
3.07796 8.37563 0.56574
9.13788 3.63825 0.60521
9.52815 0.72684 0.52768
3.26743 5.68819 0.46311
3.54425 5.58681 0.47224
5.05634 8.49976 0.67838
9.41121 9.95991 0.95096
8.76319 5.08157 0.67623
1.02568 3.45204 0.25449
3.92731 1.85902 0.31803
5.53371 0.04800 0.28154
5.03132 5.09114 1.98194
1.93863 5.55519 0.40206
8.58817 8.24938 0.82799
6.76941 5.04577 0.59534
8.37908 9.16468 0.90423
8.58764 6.28083 0.72670
7.48356 8.40336 0.81093
4.39211 1.48302 0.30417
6.10547 8.55336 0.73215
1.60365 6.75144 0.39789
6.73645 1.70233 0.40745
1.79253 1.89764 0.19030
6.93950 9.26501 0.78176
2.29598 0.32215 0.13352
1.17551 4.62535 0.30086
1.65284 3.13475 0.25908
0.01992 6.65077 0.30557
7.18740 8.39629 0.80551
7.32401 3.60378 0.58030
5.14933 4.26902 1.33883
1.61363 9.81918 0.55088
0.83554 7.83917 0.42717
0.19129 8.97204 0.45721
1.65748 4.38762 0.30766
8.90856 2.34076 0.56291
2.41537 4.11863 0.33232
3.54271 7.16092 0.53337
1.05345 1.09430 0.11269
2.22361 2.70469 0.23720
5.19225 0.46636 0.27617
6.07753 4.32348 0.50853
2.45352 8.27446 0.57474
0.57732 0.24664 0.07048
3.91033 6.75324 0.54428
2.34203 9.32496 0.60986
2.19554 2.36928 0.24421
9.59863 6.93635 0.83037
6.16300 9.75102 0.76559
5.56878 9.62278 0.75433
4.15775 2.34929 0.31865
4.28944 1.00331 0.24198
5.40905 1.48283 0.31487
6.96430 7.02036 0.70909
7.02146 7.25759 0.72044
1.71694 6.74237 0.39962
5.00113 3.36078 0.40318
4.11958 1.69777 0.31409
8.70527 5.80761 0.70809
6.31419 4.83680 0.56097
5.32504 7.28834 0.62687
1.15395 4.41360 0.28850
6.05638 3.38640 0.45502
1.17204 2.93479 0.20714
3.37207 2.11470 0.27771
1.42842 2.65746 0.20890
6.92074 0.94830 0.39503
2.06252 3.46857 0.28345
3.91859 0.36570 0.25805
8.95675 1.86414 0.59227
2.04316 7.46770 0.46276
5.07805 3.25469 0.37027
4.19272 6.68237 0.55566
0.18124 7.16884 0.37123
7.92758 5.81185 0.70819
0.69046 9.58698 0.51957
4.74255 0.21440 0.24902
5.60678 7.38653 0.67224
6.28426 9.58787 0.81898
6.88632 8.62272 0.74772
2.53272 1.67893 0.19425
0.09979 3.26820 0.16629
7.23444 1.72452 0.44992
5.35657 6.01308 0.56396
8.36118 7.12188 0.78284
8.21388 3.17074 0.58915
8.43326 5.39507 0.72587
4.85095 6.90921 0.59959
3.33628 4.21340 0.36044
7.91558 8.54016 0.81984
4.51294 7.71550 0.60991
1.83442 0.64666 0.13435
8.54974 6.21125 0.74581
8.82560 2.35326 0.59995
4.66310 5.57518 1.46456
0.75700 9.56888 0.52399
3.87826 8.79062 0.68054
8.03538 4.04516 0.59232
9.01774 2.91514 0.59955
2.03473 2.34406 0.20004
0.66974 5.32515 0.30139
8.77350 1.14248 0.48020
3.89405 5.49275 0.49028
5.41761 0.01334 0.27449
9.68066 3.23850 0.62725
0.66565 2.19934 0.16006
6.48318 9.71219 0.81336
0.74105 7.27242 0.41973
3.75469 3.49653 0.33961
8.03815 0.92845 0.45571
4.33472 5.16801 1.42734
9.97182 2.13448 0.59685
5.59059 5.36430 1.44934
3.21162 8.35362 0.57743
2.20111 6.15793 0.44251
3.50521 6.33788 0.51467
3.72533 5.41030 0.44821
0.68714 9.27266 0.47233
3.69574 9.31903 0.64211
4.64239 5.12723 1.77784
7.22738 3.05759 0.52318
6.56729 4.59587 0.55606
7.08766 1.86558 0.43260
0.08364 6.36344 0.34444
2.17667 5.00092 0.36169
6.61684 1.03300 0.39120
4.83989 1.97648 0.30632
0.05313 4.79632 0.19399
8.04495 8.87589 0.81729
7.72810 5.66391 0.65999
5.48419 6.81535 0.62650
0.66463 3.39029 0.15590
7.66515 5.71411 0.70082
5.83714 4.47380 1.08323
7.81960 6.59130 0.74775
7.51747 0.50576 0.38344
8.03002 4.93300 0.65823
5.18008 2.95993 0.40870
1.40325 3.26185 0.24961
6.71157 9.60917 0.81136
6.20474 1.82695 0.41105
7.42253 3.11245 0.54879
1.69881 5.09893 0.32686
1.94975 8.63027 0.53385
8.90410 4.16670 0.61578
7.49978 7.43865 0.76097
9.08228 8.56374 0.92139
7.58715 3.10016 0.50948
5.97155 3.92750 0.49313
6.54133 3.56556 0.52295
8.89128 8.32856 0.86162
5.78807 0.44347 0.31488
6.32391 3.08421 0.46259
1.56477 6.79409 0.40938
4.73921 5.65443 1.43112
7.16397 4.36289 0.57718
2.70943 5.39948 0.38182
2.02254 1.97585 0.19860
3.13827 4.30717 0.40364
2.41501 5.01703 0.36322
2.14913 9.01189 0.53331
4.24851 2.60835 0.33981
9.07839 8.67829 0.87354
5.07060 6.44241 0.54888
1.87920 0.20341 0.10691
0.76972 7.24631 0.38660
6.96156 0.35552 0.35336
3.82799 9.97381 0.69316
8.21831 8.72637 0.81657
6.59511 2.97344 0.44360
7.96241 2.57411 0.54024
2.71946 3.81441 0.28808
6.92359 3.56167 0.50473
2.64062 3.72338 0.28220
9.39068 3.18277 0.61895
6.36374 6.21133 0.63732
3.24512 1.64264 0.24663
2.69512 8.45981 0.60558
1.90927 8.12402 0.52340
6.94641 4.76483 0.56694
2.18716 8.52730 0.51178
5.95303 2.47145 0.47536
2.64635 0.17565 0.16235
6.61969 6.19208 0.65238
8.14940 4.57909 0.63792
7.78025 5.67165 0.67807
7.60851 8.99339 0.80045
1.87722 9.69926 0.58196
0.88385 6.34453 0.36284
6.98949 7.64056 0.71342
3.68347 0.83808 0.21531
4.32346 1.60716 0.32683
0.31149 7.33205 0.37967
2.59576 4.31365 0.38689
0.33676 4.45965 0.20501
8.79186 3.08608 0.58345
2.43397 6.07356 0.39443
5.57337 1.85165 0.34706
0.38979 6.26916 0.31638
6.66847 1.73799 0.42663
3.23027 0.63826 0.19876
8.97919 3.30358 0.60055
8.88118 2.31140 0.51507
3.25291 8.88992 0.63669
9.00961 0.54953 0.47224
9.96158 1.76614 0.56406
8.25416 5.48720 0.69257
8.44871 4.81067 0.66706
2.49009 0.45852 0.14098
5.76702 0.07252 0.29495
0.67256 9.88068 0.50456
0.94918 6.58835 0.39207
9.98893 3.65406 0.66221
3.26639 4.70432 0.38642
7.48184 2.66550 0.52034
8.06665 3.44874 0.59985
8.58023 6.49044 0.78525
9.97628 8.82812 0.96134
2.41496 1.84130 0.20633
0.40351 8.40362 0.40954
4.11192 1.21557 0.29448
1.30081 2.14992 0.19995
0.22426 0.37175 0.01636
3.60427 1.40812 0.26904
7.83738 9.17303 0.84388
5.66181 4.59439 1.36399
3.12778 0.77666 0.18492
6.54342 9.59727 0.84661
2.32018 8.78992 0.57123
0.14381 7.54683 0.42048
7.64353 9.33473 0.83964
6.23743 2.20129 0.43004
7.62303 8.36369 0.77995
0.38938 6.89991 0.38134
8.37120 8.69759 0.87142
6.19526 7.96912 0.75616
5.63395 3.46495 0.46459
6.24614 7.74399 0.71399
8.64433 2.62456 0.55403
5.86937 3.28592 0.46859
5.80950 1.07906 0.33683
9.90679 9.35077 0.96520
7.56730 2.91003 0.52736
4.42294 5.20622 1.50480
7.07397 3.91333 0.55062
3.89230 9.59928 0.66707
2.28875 3.35049 0.27437
5.96852 7.78546 0.70923
9.28182 8.55416 0.89531
9.29140 4.35606 0.68931
3.41905 3.78172 0.33089
5.27677 7.47746 0.64618
2.11636 9.12896 0.57287
9.95631 7.54932 0.86731
9.81118 2.27126 0.64582
6.49509 8.88308 0.72312
8.04414 3.87582 0.61169
7.15100 5.76229 0.65992
5.93158 8.31436 0.72313
0.53348 1.88395 0.12440
4.54764 7.84510 0.63065
6.74786 5.96163 0.65284
6.77532 8.93342 0.77092
3.73123 1.71970 0.27853
9.41692 4.20682 0.67752
1.67357 8.32843 0.47822
5.00359 0.19232 0.27414
6.90884 1.12201 0.39026
6.97136 9.90565 0.81389
6.48639 2.80394 0.45373
2.75288 9.75543 0.60944
1.56207 1.82532 0.18994
6.35940 3.61094 0.50158
5.99302 7.52869 0.70373
1.79356 6.57778 0.40524
7.05139 5.81122 0.66061
4.55172 5.29899 1.67133
6.67761 8.43440 0.76272
8.37367 2.34949 0.55339
1.69728 4.42471 0.31997
0.19145 1.55452 0.05886
7.79103 5.95942 0.69924
6.09697 2.50544 0.43625
6.99640 3.33842 0.51155
8.38155 4.71251 0.63702
8.02811 0.26771 0.42867
9.60920 0.91938 0.50698
5.35935 6.85929 0.65361
4.88496 4.28970 1.35480
4.01887 8.64790 0.60887
1.53691 6.94672 0.41390
5.72607 0.08101 0.28479
2.77013 6.16712 0.49511
9.21308 0.93725 0.48982
5.83191 7.80933 0.67974
5.92840 9.91508 0.78142
3.54925 5.31199 0.45305
0.51989 6.82780 0.35695
0.31744 2.37314 0.11175
4.23335 4.37598 0.99113
0.84565 8.56095 0.46434
6.06847 1.67423 0.37529
8.80973 2.65536 0.56248
8.82915 4.45434 0.68787
6.59045 7.12249 0.67925
2.11232 3.75884 0.27088
8.62997 9.27732 0.88612
8.86093 0.94457 0.49136
1.96654 3.70804 0.25700
7.37426 7.08954 0.75571
2.86520 2.25987 0.27360
8.02640 6.56413 0.75813
9.97238 1.64217 0.58857
0.30026 0.55980 0.00113
8.97366 1.21016 0.53990
6.22631 9.29985 0.75904
9.73383 5.51751 0.74692
4.65010 7.96346 0.63380
8.47388 3.32655 0.61759
0.62394 5.92659 0.34859
3.35279 4.94952 0.43324
0.67017 9.45738 0.50014
9.75343 7.47575 0.85491
8.16974 7.30543 0.78068
8.52547 0.46353 0.44685
9.37965 5.49670 0.76160
0.85103 4.66991 0.29265
3.85598 9.27842 0.66855
0.71035 2.57342 0.11367
2.10793 2.69833 0.24287
2.29366 4.11346 0.31818
4.69107 2.43370 0.35960
2.68562 1.29184 0.18379
1.00978 8.57415 0.45270
1.67491 5.58277 0.37215
1.47276 8.61363 0.49719
9.73077 8.31135 0.91360
7.59293 2.82042 0.50725
9.67761 5.47737 0.78607
4.39740 0.83218 0.28150
2.78368 9.15252 0.60275
7.98293 4.04263 0.59701
3.26254 3.93676 0.37701
2.99383 3.02755 0.30892
2.32506 4.60664 0.35136
1.29679 2.51759 0.21158
2.56463 3.74852 0.34419
3.55320 7.99947 0.55259
6.73994 8.34256 0.73312
0.62565 3.04182 0.16777
2.10507 4.69014 0.30971
8.09024 8.73820 0.84017
1.46922 0.52673 0.11180
3.42645 8.89145 0.61547
8.64659 2.19184 0.53124
1.54925 6.78539 0.43926
0.82737 5.82552 0.33546
4.84538 5.52941 1.63219
3.02420 8.59360 0.60397
5.63408 1.01572 0.33003
8.03805 3.47028 0.61662
1.37148 5.38253 0.32874
5.80699 8.11289 0.73595
5.05509 2.16443 0.34148
1.44079 8.02930 0.48385
6.23998 3.99638 0.49897
2.73640 1.88914 0.25367
4.87834 7.58986 0.61385
0.82272 0.90899 0.09240
4.59584 5.14767 1.72063
3.06463 0.63876 0.20391
8.22381 3.56418 0.57628
0.56979 6.01077 0.36270
4.18607 5.56116 1.03189
4.58431 4.04655 0.40463
7.25006 4.29048 0.59606
5.74288 2.26770 0.38870
6.67212 4.55883 0.56140
7.77049 9.53255 0.85871
8.62203 8.50453 0.83008
3.13875 1.45233 0.22801
5.38023 0.29781 0.30920
8.40108 9.33524 0.90688
9.89451 5.26750 0.76274
8.89519 5.37838 0.73592
3.71467 7.80718 0.55490
1.95167 3.14689 0.24842
4.89393 4.81908 1.92902
7.41641 9.68663 0.85254
4.92569 6.72149 0.57742
4.83181 1.53745 0.29445
8.38230 1.33227 0.44410
3.61404 2.04265 0.29919
8.59795 7.66712 0.81812
4.06805 2.95377 0.36913
3.28233 0.21389 0.16607
4.53990 9.44174 0.68483
7.62447 1.69713 0.46621
1.26002 0.09558 0.08486
1.96419 2.37132 0.21215
9.51445 2.35029 0.60927
1.75492 4.22005 0.27862
5.67727 9.20390 0.74083
5.79314 8.79185 0.72785
4.89624 4.56895 1.73010
6.44745 4.10900 0.53198
2.29827 5.55009 0.42734
5.52662 2.43454 0.37110
3.72173 0.52185 0.21478
6.61667 9.39224 0.80403
1.41224 1.86699 0.17636
5.70877 1.98401 0.36837
1.85270 4.72460 0.36255
2.78643 4.91613 0.38539
2.18710 0.18434 0.09683
1.82838 1.47955 0.16508
8.25711 3.78155 0.59567
2.85708 6.83731 0.54038
9.27124 2.28418 0.59877
9.69927 4.23014 0.69746
5.71260 5.57345 1.21180
1.43001 8.88592 0.53482
3.74548 3.26071 0.37029
7.97732 1.33558 0.40741
3.67391 4.89272 0.44119
0.87017 7.46722 0.41743
5.56785 1.09860 0.30710
8.45121 4.24683 0.65251
7.95926 0.17785 0.45178
1.75123 0.33559 0.11548
6.72765 4.82953 0.59987
2.20504 2.98197 0.29543
2.18208 8.45107 0.51505
8.74072 6.02154 0.70096
2.49669 4.53933 0.36494
2.63247 4.07935 0.33064
0.00653 4.97245 0.22147
8.70669 0.40439 0.45399
7.92595 8.92793 0.85725
6.27329 9.98303 0.80984
7.50266 1.81487 0.45014
1.52049 1.20383 0.13175
4.58324 1.43577 0.30056
3.51219 6.61027 0.46753
0.93777 6.61441 0.37475
4.86130 8.47924 0.64014
9.20740 7.51826 0.84946
0.40059 4.49690 0.21365
2.91461 6.12855 0.47241
2.07541 6.88285 0.43973
2.38147 5.12736 0.36458
9.08435 4.75651 0.69793
4.68069 6.45097 0.53926
4.66299 5.57475 1.47975
7.60576 6.43942 0.68762
1.54492 6.12855 0.37254
4.87265 7.19197 0.61134
4.29985 6.42804 0.51362
5.96911 5.19742 1.09705
9.99558 6.81797 0.84564
7.69449 4.49482 0.60893
3.97866 2.41671 0.32314
8.27553 0.01418 0.42104
1.70708 5.59964 0.36648
0.30464 5.90655 0.32272
2.04448 9.72049 0.59020
3.40412 3.61478 0.31080
5.10581 3.94133 0.41740
6.15129 2.01800 0.44702
9.10606 0.70534 0.49057
5.09854 7.72804 0.66033
5.01276 2.49681 0.36856
0.50243 6.08905 0.32841
0.34912 6.87773 0.35228
5.51160 4.71237 1.62341
4.38179 8.76352 0.66233
8.39180 4.43795 0.63079
1.60680 2.84909 0.18976
0.24972 8.96016 0.49997
4.49039 8.61564 0.65204
2.37479 1.64040 0.21564
0.49614 0.25961 0.05491
7.24598 0.89986 0.39804
1.11593 2.86547 0.21252
6.08320 9.72260 0.77821
2.81050 5.58516 0.39997
1.73496 3.73262 0.29667
3.79752 8.88716 0.63107
8.01446 4.53136 0.63766
3.92094 3.15239 0.36188
7.50770 9.41220 0.85875
1.25486 8.49518 0.45637
7.72771 8.43668 0.79651
2.36933 5.12285 0.36812
6.77393 7.89438 0.71679
5.65782 1.79353 0.38115
9.29145 5.73223 0.77492
3.87323 9.83846 0.71249
0.66165 2.90958 0.17178
0.19155 7.94352 0.41259
8.26859 4.90478 0.66758
5.24736 0.39806 0.29470
7.75244 7.63019 0.75157
2.34426 1.68569 0.23791
3.45084 6.31474 0.50681
0.30104 0.85664 0.07694
9.61492 9.46867 0.97825
6.67868 2.91724 0.49048
9.33205 2.26465 0.55929
2.65496 1.29136 0.19454
6.11464 9.46002 0.74571
6.78500 7.11904 0.70350
3.17550 7.41661 0.52622
8.48109 4.99405 0.67295
9.47161 4.74728 0.73502
8.84855 1.10021 0.48830
7.39067 5.59841 0.64441
2.77465 2.46916 0.26263
2.81616 9.77145 0.59258
9.63360 7.96581 0.87465
0.10284 4.12992 0.16192
7.16050 1.51341 0.42199
7.06246 7.85332 0.76289
6.22690 1.22054 0.38132
9.90109 1.89334 0.57782
3.11879 2.11521 0.26252
3.39972 5.56891 0.42693
0.78939 7.87057 0.43295
4.42798 3.14315 0.43716
2.61049 0.84670 0.20978
3.43387 4.64538 0.40502
8.34572 7.48110 0.79454
9.35485 2.21664 0.55898
1.85733 2.19925 0.18679
3.72509 9.47227 0.66711
9.28631 9.54154 0.93089
0.61808 9.90466 0.54422
0.92361 8.07660 0.48140
1.62791 1.88184 0.18214
5.95213 2.11982 0.40563
1.50472 3.40225 0.21173
9.68076 3.18133 0.65806
4.46715 9.56528 0.67875
5.01518 7.89074 0.63694
2.46659 7.24009 0.50453
4.70960 1.85963 0.34906
6.61914 9.09526 0.77639
7.51177 8.27870 0.78135
7.53868 1.63642 0.44477
5.77891 8.71170 0.70057
9.04360 2.72248 0.57561
8.17408 0.80870 0.41688
7.57048 6.56822 0.72060
0.55606 6.53805 0.36260
0.06878 0.94932 0.06212
2.12447 3.18852 0.24656
6.63524 9.92814 0.80427
4.11197 6.78427 0.54588
4.02406 7.30075 0.56752
8.84587 2.12917 0.54581
8.95563 0.78782 0.48138
9.09175 2.76902 0.62725
3.13878 2.48898 0.28991
6.91056 2.34544 0.50221
2.71633 1.92754 0.25757
1.90610 5.74756 0.41675
1.84632 3.28103 0.23488
3.42108 8.20345 0.59309
4.29958 1.83947 0.29832
8.30949 4.64627 0.61452
1.19891 0.13658 0.09669
7.34926 4.81682 0.60243
5.31455 0.55838 0.27254
2.87945 9.77724 0.62454
4.92820 7.90592 0.62578
2.99942 4.90111 0.38115
5.96082 0.86587 0.33690
4.33844 5.92445 0.54776
1.64406 7.58764 0.44826
1.16583 1.90717 0.18684
5.46696 5.68208 1.33186
9.02413 8.14211 0.86624
3.43958 7.68248 0.57107
7.33000 8.02992 0.76827
6.58661 8.79323 0.79471
9.31555 9.37682 0.94596
8.20981 4.05521 0.57996
5.66605 5.68769 1.17346
6.57030 7.90660 0.73952
8.98386 6.97140 0.79198
3.99519 9.95520 0.70004
3.26795 0.13678 0.15798
0.10811 3.55133 0.15542
8.26551 2.81028 0.52278
8.00981 2.62316 0.50091
1.04455 2.22530 0.17687
5.76857 7.09124 0.59318
4.63982 0.84759 0.26104
1.18709 7.41609 0.41485
9.80568 6.93426 0.83135
2.14696 2.50804 0.19562
0.67234 2.52834 0.16811
5.94847 6.28861 0.58639
7.38867 7.62171 0.77317
0.32443 8.76486 0.44203
6.58718 8.52140 0.75352
5.32292 9.64883 0.74866
1.03265 5.81385 0.34721
1.72524 9.08656 0.54133
5.67974 8.08513 0.67970
2.96358 8.94668 0.60237
9.38316 0.11627 0.48429
8.18740 9.65903 0.87702
9.83567 4.73530 0.73708
2.59671 7.98183 0.55276
9.69724 1.27204 0.56258
4.31234 3.95941 0.43223
3.47519 2.71461 0.31293
0.50350 2.91659 0.15228
0.52765 1.23256 0.07182
6.92011 8.05764 0.75529
4.57929 0.09242 0.25244
2.26522 3.12505 0.32523
6.13970 1.74411 0.41383
2.52858 5.89039 0.39754
5.77632 2.54252 0.40060
3.59209 2.58998 0.35467
8.23552 4.88338 0.65166
8.20696 6.52689 0.73764
4.77350 1.21305 0.28012
3.50819 1.75511 0.29447
3.62560 2.47175 0.31487
8.05715 9.73748 0.87424
3.28179 3.97152 0.34279
2.09059 5.98990 0.41017
0.84688 2.41543 0.16400
4.66693 4.90460 1.82555
4.82132 0.74119 0.28907
8.40909 0.34742 0.43254
2.21239 4.68734 0.33411
3.80991 3.98659 0.38663
8.08406 1.36880 0.46163
8.23624 6.87601 0.75301
3.84611 9.92903 0.68909
4.59124 3.95647 0.40943
3.03286 6.24559 0.47654
9.32555 9.62976 0.94036
1.18644 8.31535 0.45825
9.33749 4.63552 0.69162
6.83866 7.37489 0.71552
5.31572 1.28135 0.33151
0.32659 5.12104 0.28082
4.75596 2.79060 0.39530
4.07748 1.61164 0.31055
1.61219 4.26281 0.29946
6.56410 1.31015 0.37232
9.71151 6.98985 0.82969
5.62189 4.56240 1.33046
7.14753 5.31145 0.65689
0.68450 1.46376 0.14716
4.17667 1.39772 0.29173
1.16358 5.83415 0.36706
6.12796 9.85010 0.80392
9.38482 0.96251 0.52469
6.61778 2.85731 0.44181
0.76803 8.69459 0.47165
3.54666 0.72272 0.19585
5.50663 8.75886 0.71890
4.03208 5.24286 1.01667
8.33644 4.08267 0.65989
8.14671 3.09681 0.58051
6.11831 2.97117 0.46016
3.73458 3.05803 0.33429
2.55336 8.84803 0.60359
1.05874 7.23795 0.41424
3.54898 6.69723 0.51894
4.13173 7.98749 0.60681
6.75823 2.57115 0.45839
6.58160 6.18043 0.63883
0.70108 4.60066 0.22585
3.95259 7.82442 0.55790
1.81779 3.09256 0.25251
1.56813 6.43179 0.43136
8.27302 8.82212 0.86172
0.41915 4.02150 0.20763
4.19183 0.66622 0.21405
1.68204 5.16051 0.35782
8.79330 3.45972 0.60131
5.57041 6.72225 0.62750
2.31381 9.51033 0.59900
5.02427 4.85608 1.97197
7.31486 4.66190 0.59951
9.58118 6.54585 0.81402
2.20446 1.03498 0.15958
8.86182 2.53506 0.55714
9.34304 9.18979 0.90737
9.16421 6.69943 0.74548
6.35414 0.13444 0.32081
6.29821 2.04625 0.44761
4.03211 6.82837 0.55763
7.52398 7.64399 0.76295
5.31294 8.39860 0.67090
6.77438 2.92177 0.50475
4.28458 9.31029 0.67736
7.31496 5.52947 0.67372
8.24472 6.96539 0.74088
1.46436 5.96739 0.35659
8.32930 1.22740 0.46089
5.40297 9.63115 0.72206
8.44666 1.22876 0.46503
4.31302 2.54882 0.34516
3.79040 8.13628 0.58209
9.15061 6.18597 0.68970
2.51169 8.38149 0.56614
8.44212 5.15736 0.64629
4.84021 3.76993 0.44229
5.14095 9.21845 0.71859
3.08468 0.36252 0.21471
5.73042 8.56130 0.73453
3.25211 2.30818 0.26792
0.39269 8.48736 0.42996
2.71999 1.39197 0.23565
0.06379 5.80219 0.26378
9.78355 8.88108 0.93705
9.65747 4.73540 0.71702
3.95155 7.46567 0.56400
7.28371 8.04672 0.77359
3.45806 7.36494 0.54494
6.71093 9.25330 0.80736
8.05430 4.46834 0.62891
9.46756 1.73125 0.56829
4.00212 0.47811 0.22588
7.83298 2.46460 0.50169
2.65928 1.43198 0.20464
9.90332 5.57949 0.75985
0.25770 1.84945 0.08975
6.03529 0.38934 0.31451
6.59506 0.35990 0.34536
6.88046 8.31569 0.76051
1.20388 5.91450 0.37425
9.38530 3.58085 0.63834
1.81183 8.94228 0.54164
6.22753 0.70197 0.34884
2.22676 9.80322 0.58933
3.07216 6.16292 0.46323
5.46459 1.83464 0.38502
4.17193 6.79069 0.55186
1.60226 7.63381 0.46634
1.70936 4.29343 0.28603
4.18145 8.61633 0.67927
7.57283 1.50732 0.44104
8.97965 2.78838 0.55505
0.84128 0.93492 0.10601
3.93104 2.10878 0.29969
1.00246 2.38729 0.16343
0.16592 9.17633 0.45620
6.61719 0.78110 0.40735
6.02449 4.27415 0.52202
1.63019 5.32399 0.35870
2.33813 8.98693 0.56951
0.23708 9.97696 0.51610
8.34947 7.53388 0.82214
9.74691 9.70791 0.96772
1.35460 7.87101 0.43214
2.31475 9.63203 0.61470
8.68410 7.07271 0.79777
9.26464 0.79763 0.50527
4.19627 4.01920 0.42019
0.50622 6.46597 0.34119
0.39392 3.50719 0.19547
5.73950 2.73384 0.42103
3.92895 5.77399 0.47332
0.28652 9.33502 0.50486
5.83252 0.34982 0.28087
0.11303 7.69231 0.43748
7.87372 7.22727 0.77260
3.06433 9.63953 0.59963
0.40258 9.30711 0.48100
5.88352 7.62233 0.67192
3.97684 5.20409 0.46688
9.73800 2.04268 0.56925
5.44199 5.45236 1.55086
2.75239 7.65352 0.51787
7.09439 8.95669 0.78780
2.71492 7.89712 0.51307
9.04243 1.95267 0.56813
3.74722 5.99686 0.45327
5.49869 3.32173 0.45058
0.50573 0.09206 0.04584
4.26121 2.00221 0.30880
8.32364 1.13221 0.47384
8.05649 8.42719 0.84745
2.24319 2.58506 0.22732
2.26079 2.84698 0.24336
8.17305 9.59937 0.87871
9.30398 3.79087 0.67805
0.95361 0.09586 0.07832
4.50059 2.83846 0.33903
3.37454 1.19300 0.24850
8.70688 1.02809 0.50313
0.83525 0.77487 0.11158
2.11126 5.93259 0.40989
7.52468 1.89348 0.47002
0.51294 3.61243 0.22917
4.92535 8.62018 0.69125
4.42107 4.24338 1.08334
3.34401 9.15691 0.64422
3.94572 4.97938 0.44933
5.29941 3.98837 0.44091
1.61367 7.50389 0.44426
5.71996 0.73175 0.29387
8.05432 0.89478 0.44315
7.60161 6.51974 0.72459
1.53900 4.86941 0.32035
1.49249 7.90415 0.49027
2.68174 9.16271 0.59897
3.61075 3.88367 0.36666
4.08456 5.96410 0.50419
6.79697 5.00697 0.59964
0.56680 9.81611 0.52193
0.34673 8.31084 0.43589
3.91911 9.11738 0.63644
6.97164 2.54340 0.46709
1.93435 7.72526 0.52815
6.41504 2.65473 0.47806
2.59828 2.08743 0.20481
8.86086 9.44266 0.86784
8.95690 0.19304 0.45902
2.97287 9.65389 0.64921
2.29994 1.49262 0.17923
4.11304 8.19438 0.63580
2.40532 2.75923 0.25942
6.72384 3.50702 0.50828
8.26065 2.16758 0.53653
6.73092 5.85514 0.61867
8.24350 3.48096 0.58049
3.96992 6.57393 0.54060
1.56317 0.15647 0.08535
7.37951 0.64375 0.43934
3.60475 0.99661 0.24394
6.71271 4.18994 0.55771
2.70644 8.14796 0.54173
0.81230 8.88178 0.50220
9.92582 2.44811 0.61224
1.56202 5.74370 0.37093
9.88421 7.68365 0.86007
9.77280 2.88829 0.65384
7.93818 4.09008 0.60723
6.59423 5.23974 0.63135
5.77807 1.34875 0.40419
8.66102 0.25982 0.46131
2.89440 1.52806 0.22249
4.67681 6.26854 0.52835
6.19390 0.73618 0.36460
4.11190 1.89696 0.30465
4.27486 3.37854 0.39343
3.30285 0.77870 0.23867
5.64232 1.91699 0.36148
8.50575 9.11270 0.86244
2.01528 0.19299 0.10569
9.34433 6.53432 0.81036
6.89088 3.84409 0.54785
8.23273 6.72649 0.73005
5.56191 5.88692 0.58757
7.79517 2.23499 0.47748
0.16200 8.47209 0.41495
8.18380 4.91940 0.65285
0.40139 8.22536 0.42027
8.89913 4.06013 0.66576
9.91963 9.84686 0.99405
2.94067 7.70489 0.56759
2.10319 9.65950 0.58319
7.65363 5.14326 0.63740
2.53026 4.73691 0.38757
8.65562 7.55454 0.80869
1.02843 8.80291 0.52145
1.25955 9.64146 0.55587
9.79152 3.24552 0.60480
6.73839 7.98705 0.75982
8.46887 2.10646 0.54702
3.24329 5.45574 0.45398
6.76484 1.79848 0.38995
5.94242 3.47397 0.45756
6.03150 9.31358 0.75548
6.82532 1.46091 0.39749
5.75359 6.32401 0.63872
4.29062 5.92954 0.51077
2.75923 1.20738 0.19760
7.68581 3.25979 0.55832
2.26272 5.62982 0.40601
6.92354 1.87179 0.37307
2.33333 8.00624 0.50405
6.25330 9.72157 0.77049
7.47078 2.14759 0.48892
2.18714 1.86912 0.19704
0.59943 4.54935 0.25775
1.30974 7.47765 0.39780
6.05997 2.81601 0.43760
8.49446 0.19880 0.45697
0.44997 5.41221 0.32130
7.34151 9.56601 0.85975
3.41319 3.91277 0.33959
4.78528 4.20135 1.23145
9.28860 9.68902 0.96336
3.31972 6.94608 0.51095
4.65337 7.19172 0.55175
0.13682 5.62702 0.30726
0.81599 9.74609 0.51626
2.58592 6.88866 0.48065
0.27852 8.95033 0.46281
6.31375 6.99379 0.69614
4.26398 7.35116 0.57825
5.48145 2.90411 0.41898
1.74647 3.03479 0.27064
2.95932 7.82985 0.52629
6.63824 2.96706 0.49655
9.65303 5.62770 0.76006
0.50417 2.49352 0.12983
8.90384 8.16983 0.85371
5.76881 1.10501 0.35753
5.63920 8.29447 0.72376
5.00279 6.02730 0.58100
0.69394 1.86910 0.12226
0.89877 5.42035 0.29621
6.00912 2.82499 0.43533
3.40959 3.23467 0.30858
9.17268 3.51528 0.63005
4.06591 0.63319 0.22812
1.43281 9.85962 0.57917
7.14719 0.31535 0.32901
2.93353 6.62497 0.46325
5.25470 3.71228 0.43384
6.97833 6.46010 0.69566
9.00264 3.56248 0.60598
7.92191 6.73751 0.73750
6.76361 7.29236 0.70024
6.79633 6.90553 0.70595
9.45925 1.13962 0.54186
2.95824 6.56893 0.47878
0.01112 2.79988 0.12946
2.71955 0.28801 0.11333
2.17891 4.14831 0.32130
6.61835 4.33543 0.55830
6.33712 4.67174 0.51895
5.93461 7.04824 0.62447
0.16243 3.08844 0.16759
7.28778 3.15281 0.52881
3.23530 0.60552 0.17223
6.65056 6.86821 0.66446
5.56578 5.67826 1.21298
3.42731 3.49425 0.37362
1.34576 7.05189 0.39389
0.94419 5.37358 0.32673
8.31518 4.69245 0.64968
9.18398 5.11325 0.74065
6.49788 6.36348 0.62722
1.03434 6.60003 0.38294
4.02027 2.88958 0.31152
7.28939 1.40743 0.39607
7.79821 1.56634 0.48015
1.18219 6.39391 0.34310
0.00031 8.72873 0.43189
7.12137 4.09496 0.58104
3.56596 1.69520 0.27799
2.54481 7.56602 0.49225
0.12897 8.32489 0.39092
5.40299 8.80582 0.72063
8.51151 6.06831 0.75584
9.57632 8.60729 0.89594
5.65745 0.15415 0.27451
5.14461 1.07236 0.30035
0.85056 0.92576 0.10025
5.48873 7.12605 0.65531
3.79979 0.69582 0.19999
6.07135 4.96364 0.52178
3.88726 4.72707 0.47752
2.40299 3.10704 0.27195
0.94965 8.70405 0.48774
3.14918 1.70433 0.22884
0.96645 3.52463 0.23435
1.76897 7.74172 0.49474
9.87336 0.30422 0.51488
4.44104 6.72950 0.59334
5.31872 8.16398 0.66760
8.73619 9.32268 0.89769
9.95569 8.76297 0.94056
5.82714 3.19384 0.46035
8.12474 5.86364 0.70398
3.26941 0.77293 0.17643
3.05744 2.57870 0.28806
4.02704 0.94222 0.24098
6.72507 3.15187 0.48223
6.82192 8.75187 0.77934
3.15239 3.47167 0.31197
1.33210 5.61898 0.32485
6.32396 4.33381 0.48058
1.28326 4.58917 0.32857
5.78493 9.69572 0.78515
6.93422 2.96154 0.49245
7.00611 6.27324 0.65062
7.53472 4.20063 0.52925
8.72859 0.61146 0.45243
4.99959 4.89331 1.99198
7.30249 8.13343 0.79064
6.19173 0.98753 0.37181
1.86640 0.69592 0.13128
0.25690 1.53632 0.11574
2.84541 7.64400 0.51790
4.43034 7.23995 0.60522
6.17106 5.65018 0.58337
8.49959 4.68226 0.64147
1.96246 8.88326 0.52217
1.25550 7.66698 0.42483
9.63480 8.11942 0.90089
1.08045 8.13262 0.44580
4.78491 6.42717 0.53994
5.85564 4.58015 1.14082
5.41374 8.64678 0.70959
0.86032 9.26007 0.52527
0.57027 0.23806 0.05067
1.05483 0.51555 0.06346
5.85588 9.58743 0.77369
5.44345 2.77161 0.41326
2.33741 8.73369 0.53517
6.37774 3.88795 0.49119
8.20068 1.19100 0.45597
0.41579 0.80443 0.10174
4.98130 1.56508 0.31906
6.89310 2.49893 0.49426
2.52312 4.88518 0.36104
3.07771 7.01498 0.52241
6.13638 9.86399 0.81807
8.97935 4.41507 0.68877
8.09924 5.18185 0.67181
5.83130 5.21816 1.29665
7.30222 5.39434 0.64240
3.64822 5.17741 0.47555
6.40966 0.08775 0.29247
4.66182 0.01725 0.24092
1.89936 0.97666 0.14947
7.01738 1.01557 0.38292
5.56465 7.04897 0.64227
3.58622 2.04916 0.25197
9.11339 8.94714 0.88994
0.20934 9.28606 0.43479
3.15773 9.75893 0.67701
0.56881 9.39081 0.49335
7.66527 2.71888 0.56255
7.02107 5.09777 0.62200
3.31352 1.75455 0.26237
6.75663 8.06210 0.72921
3.95937 8.88432 0.62126
7.56254 8.51289 0.81423
4.54184 4.33367 1.22236
4.12280 7.58674 0.55869
9.34730 0.97579 0.48582
2.50879 0.40245 0.12639
1.20447 7.53236 0.47326
5.84543 4.25355 0.54921
9.69322 9.95549 0.98654
3.77839 0.97254 0.24053
0.62037 8.55628 0.45211
3.39305 4.79983 0.39095
5.05932 8.27150 0.69404
1.61923 8.17127 0.52700
6.58102 9.15992 0.76918
9.97749 2.97850 0.64614
4.51739 9.49799 0.69177
3.54729 1.51667 0.24479
4.00704 0.81969 0.26505
1.15146 4.31616 0.24714
8.83274 8.28323 0.86513
4.14826 4.73421 1.13531
3.87274 8.29287 0.60544
6.59690 7.29687 0.71255
4.42033 2.09428 0.32868
6.48233 9.48882 0.82290
0.61446 0.60781 0.03067
8.13723 8.98280 0.84903
9.40504 3.04443 0.62104
6.48765 5.00148 0.52101
9.54566 4.22352 0.66674
1.51432 1.71835 0.14536
4.77416 3.58147 0.43675
6.01807 1.92934 0.38323
5.81737 2.03886 0.37645
4.01462 1.87057 0.31061
3.38084 4.89017 0.38119
1.26824 7.97931 0.42095
3.91742 5.68970 0.47312
1.62661 8.93207 0.49898
7.34366 6.36544 0.65726
2.08831 6.89340 0.46055
0.58565 6.67607 0.38061
5.52366 4.49459 1.39990
5.95230 6.89339 0.66446
8.71913 0.69708 0.49563
5.76982 8.59851 0.67584
3.45481 7.77812 0.57065
8.03012 2.45230 0.51353
5.40279 7.68032 0.63921
0.79280 0.12643 0.05717
5.65851 2.17247 0.35694
9.08019 0.65137 0.45156
3.96313 7.80227 0.60094
2.96326 7.55874 0.53586
1.43469 8.13636 0.48129
1.51446 0.04482 0.06037
4.32771 5.01233 1.43630
5.95680 7.04836 0.66386
0.80615 1.55401 0.11971
9.39569 6.49791 0.77113
7.55134 0.84110 0.41112
5.86624 1.81326 0.40073
8.28439 4.75797 0.67866
0.80187 6.53565 0.36035
4.76839 1.45869 0.30636
6.30093 1.85223 0.40442
8.28653 2.04446 0.52205
7.83470 2.38701 0.49946
2.77069 2.26554 0.19393
9.40880 3.95149 0.69187
1.24346 6.53790 0.42496
8.75134 4.38032 0.64433
9.70940 7.75974 0.85212
1.77154 7.19269 0.44547
7.22066 1.26527 0.42055
0.40286 0.48842 0.06447
4.05423 8.77942 0.64277
5.16283 0.79831 0.28220
5.80645 1.48339 0.33812
9.35937 0.22133 0.49635
6.72251 6.28336 0.66228
4.81278 5.82371 1.28789
8.09675 9.86904 0.87893
9.50533 8.86932 0.95550
0.22066 4.10843 0.18158
9.82521 3.71586 0.69125
0.86132 2.96852 0.15330
8.14387 1.52407 0.46759
2.80335 1.38084 0.24043
1.32180 1.32284 0.14886
4.39856 1.14115 0.26606
6.43957 2.40512 0.43186
3.80952 3.06669 0.34582
0.54565 9.61579 0.51836
5.99461 5.78473 0.61400
9.02403 9.87596 0.93587
3.83215 3.72467 0.34561
2.16333 4.57627 0.34012
4.42577 3.24579 0.37443
0.48363 1.82888 0.08961
8.20488 1.43165 0.48778
8.26341 9.45079 0.88145
5.88000 9.86811 0.79354
3.53103 0.44909 0.18112
7.99783 1.50346 0.48480
5.54687 4.23524 1.08250
8.25932 1.86333 0.48958
6.31459 3.63880 0.49281
7.84405 1.29096 0.49159
5.98563 4.56512 0.54323
4.14141 2.71695 0.36446
9.57946 3.51905 0.68327
5.41114 0.94313 0.38977
6.05090 4.28128 0.51744
2.20488 9.83258 0.63028
6.25651 3.28833 0.49749
5.71608 8.76429 0.74394
1.84838 8.43199 0.54950
0.59587 9.52058 0.49744
6.04359 7.90110 0.68726
7.63692 6.59597 0.71804
5.23401 8.56584 0.68634
2.26773 0.75645 0.15758
6.66522 4.62831 0.59593
0.80106 9.89256 0.52512
4.41834 7.69600 0.59962
1.63367 9.62075 0.56621
1.84459 7.79634 0.47748
2.02294 8.74882 0.50031
3.86707 7.06530 0.53502
0.51150 7.60502 0.41957
3.97793 5.23178 0.48924
5.11707 9.24238 0.69488
4.83294 8.25039 0.63098
3.82784 8.43885 0.61394
8.39147 6.73009 0.71457
1.45327 3.04580 0.21605
5.05697 0.35630 0.23594
0.62041 9.35655 0.52623
0.71156 5.86120 0.31325
5.73866 2.98143 0.46906
5.66018 1.49135 0.37985
8.78034 8.29523 0.84085
5.57874 8.36520 0.67576
9.59791 8.14508 0.88328
0.48695 6.45083 0.34480
0.98008 3.66015 0.23893
0.44066 3.04070 0.15854
1.85277 0.08555 0.11184
5.41270 8.33608 0.69275
6.45572 0.87433 0.35969
0.45585 6.30755 0.32393
9.45971 5.04075 0.72133
8.42165 5.26689 0.66809
2.96612 9.26713 0.61283
0.77188 0.31615 0.05611
1.69887 7.73392 0.47687
1.26944 0.52052 0.12482
1.23284 0.38154 0.07807
5.18562 4.29818 1.37983
2.45847 0.63075 0.15905
3.58140 7.89144 0.56888
9.89505 5.29563 0.75715
6.84314 0.29039 0.35550
9.48981 0.40501 0.50034
1.42557 6.12669 0.35843
3.82139 8.06112 0.56482
5.54732 4.37800 1.26439
0.76758 5.54581 0.33363
0.04187 7.99829 0.41692
6.70434 6.10506 0.64357
6.41820 2.24760 0.44863
4.10789 6.13052 0.52619
4.89644 6.28279 0.57471
4.15443 7.34107 0.55758
0.24005 6.20874 0.30050
3.35372 9.69242 0.64454
1.77082 1.97288 0.18684
0.98424 9.51091 0.51992
9.56720 5.38339 0.71000
5.99360 6.71956 0.67009
7.28656 0.99462 0.40858
3.15364 3.80576 0.35142
3.93147 7.69379 0.60615
2.36924 7.06911 0.42502
0.96966 0.40139 0.05832
1.79032 5.46594 0.35507
7.97514 0.88278 0.43617
6.77546 9.95856 0.83323
5.46929 8.97297 0.75106
4.75090 0.21081 0.26155
9.22434 8.58650 0.90970
0.72735 9.19430 0.49702
2.80601 3.53548 0.28909
3.49938 7.19502 0.49313
7.82426 4.42104 0.58168
9.92515 6.55232 0.83107
2.40671 3.40317 0.29113
8.74307 3.22559 0.59423
8.30623 4.24434 0.62016
2.24657 1.45568 0.22535
3.99333 8.31139 0.59878
4.09673 3.48698 0.39774
9.78221 4.00150 0.68922
1.80892 8.94055 0.53625
7.99158 4.96624 0.67142
3.34193 5.44254 0.46847
7.30870 9.56498 0.83889
4.20011 8.86726 0.66935
5.78360 1.69467 0.38119
8.32612 4.73215 0.65306
8.04166 9.71296 0.89182
8.66423 3.72366 0.60563
0.59617 3.71573 0.20947
6.92051 1.95030 0.43193
1.39987 1.14323 0.14518
4.15819 7.40305 0.57616
5.48588 7.70030 0.63336
4.02739 9.69013 0.67141
5.19612 7.73418 0.58253
9.96526 2.43352 0.61005
1.35217 0.40117 0.08842
6.75456 9.85437 0.82772
3.96001 3.40451 0.40783
1.33010 3.11972 0.23399
1.58737 9.05955 0.54296
9.49273 5.85100 0.73432
8.79601 2.14871 0.53994
9.07042 8.89096 0.88834
9.91533 9.93361 0.97673
2.08315 0.86679 0.13150
3.55439 8.62252 0.57268
6.69219 3.90516 0.50435
4.83803 5.24072 1.90031
4.18390 9.14816 0.66374
3.57811 9.73379 0.65547
5.93781 2.62164 0.42786
5.75593 2.12851 0.41757
1.61458 0.80517 0.12107
4.71740 5.61798 1.47284
5.53472 0.13604 0.26661
5.70287 4.11898 0.47872
2.10107 0.73384 0.14883
7.42271 4.05226 0.61160
0.25199 0.39932 0.06116
3.54832 8.35217 0.60668
7.80213 2.09739 0.49800
5.63893 3.28309 0.47412
2.61162 8.70048 0.58150
6.94953 7.46266 0.67474
5.67391 2.19038 0.37214
7.96244 0.71899 0.44083
7.35025 7.15674 0.68961
6.10108 3.90703 0.48245
4.88178 7.66080 0.61313
1.33182 4.45295 0.28412
2.61333 3.46002 0.29792
4.19099 4.51205 1.04377
5.99299 7.48559 0.69044
5.13708 9.02220 0.70266
2.88185 0.49767 0.16128
0.06464 5.24112 0.23830
4.96239 0.32835 0.28502
2.85626 4.68410 0.36359
7.34608 8.85283 0.78820
0.23946 3.61590 0.19703
5.84828 9.32450 0.74330
9.41474 6.30608 0.77552
1.74409 9.34155 0.55945
4.71649 7.57167 0.60788
0.91422 1.03435 0.14366
6.25682 2.31151 0.42692
5.50532 3.94170 0.48471
4.07366 1.70107 0.24990
5.21377 4.94912 1.92022
8.96575 4.71368 0.66223
1.96294 9.56259 0.55719
0.22565 4.33728 0.23646
8.61665 7.85627 0.84436
5.77117 9.41911 0.76641
8.90658 8.76989 0.87929
5.96945 2.08668 0.39019
8.10161 4.96030 0.67537
4.29673 3.47740 0.43013
7.49860 3.99859 0.57756
9.13041 3.60807 0.65571
5.72123 8.26359 0.70611
1.80785 4.52139 0.33157
2.68798 5.23694 0.37296
1.98645 9.82447 0.58078
2.46857 0.59979 0.16133
3.06415 4.87958 0.42144
5.55134 7.74062 0.64824
5.87992 1.51162 0.32891
4.26500 6.11532 0.50905
6.15421 2.39465 0.44765
0.81575 8.67404 0.44281
0.87788 3.27100 0.18391
1.71829 3.29063 0.25356
5.18077 5.98194 1.10936
2.13995 1.83563 0.21067
2.83284 2.84889 0.25951
4.00313 4.16632 0.40197
8.11866 3.53638 0.60666
0.13862 5.24877 0.24551
6.49379 5.99640 0.65405
6.68877 5.66667 0.59642
7.98656 6.54168 0.74340
9.32753 3.07750 0.61279
0.20138 1.26426 0.05038
1.53784 7.60808 0.44736
8.86171 8.50780 0.87937
4.58519 2.57006 0.35763
5.64591 4.07092 0.50821
6.63027 4.98569 0.60951
6.79067 5.33327 0.58254
9.31740 6.59490 0.77049
9.96949 0.41603 0.49318
7.20157 7.21477 0.70283
2.87221 0.61971 0.19668
8.79752 4.68289 0.68523
0.49221 8.27671 0.42755
2.31081 4.51215 0.34093
8.97386 1.49090 0.55132
2.56192 9.85034 0.65877
2.20651 8.89285 0.56016
1.38125 7.71314 0.40153
8.59112 4.11512 0.64126
5.00058 1.83846 0.36065
6.74893 9.41411 0.81264
2.39066 5.32351 0.40024
7.58040 8.52355 0.81234
7.60006 3.42095 0.52636
3.12598 3.35288 0.30622
4.10683 9.85540 0.69169
2.09690 5.21833 0.38707
9.76561 1.40695 0.54331
6.45603 2.19675 0.44176
9.34544 4.81944 0.71432
3.03386 0.42471 0.20465
7.81891 4.62534 0.62138
7.65859 4.18941 0.55730
6.91656 7.79336 0.74843
9.65639 3.54942 0.70305
3.93555 9.82549 0.70230
1.30717 1.80770 0.13999
6.71709 5.90987 0.60971
7.29310 0.89699 0.39045
5.75061 7.33864 0.69453
2.06818 9.94754 0.59424
5.04456 8.19139 0.64854
3.12190 5.55704 0.43078
4.27467 4.84741 1.31572
6.45219 8.35030 0.77148
7.45215 9.35974 0.82030
2.32225 9.89207 0.63433
4.05325 3.96539 0.40337
2.69162 9.90917 0.65418
1.98632 1.55926 0.20893
7.83387 2.53550 0.52016
9.09253 0.89016 0.49283
3.70232 2.71739 0.32231
7.51279 7.67938 0.75771
8.96995 8.52924 0.84182
8.46124 7.78893 0.84356
1.82813 6.31066 0.41186
9.56292 5.13967 0.71187
3.76676 7.08704 0.50134
3.39241 3.90834 0.31849
0.62431 8.41308 0.46728
4.86174 6.77190 0.56930
1.09014 6.97805 0.39431
2.48540 5.35936 0.40200
3.16943 8.85229 0.59076
8.08826 2.52015 0.54135
8.75489 3.81148 0.63022
3.02466 7.77643 0.53837
8.58698 4.92749 0.64427
8.57231 8.89214 0.85683
7.64651 3.46399 0.56758
1.46695 3.69330 0.24437
6.90323 8.88736 0.81364
9.45024 4.64370 0.75163
6.82540 5.16125 0.61246
3.31617 3.32764 0.36205
5.00579 2.76670 0.40304
6.45725 6.55949 0.64015
5.10570 1.19841 0.31921
1.19953 8.79273 0.53988
3.12064 7.79203 0.53516
8.02396 1.90748 0.47579
8.61418 6.94020 0.75504
1.37300 6.02633 0.36562
9.52387 1.84535 0.54839
3.28823 2.73204 0.33449
6.62314 4.08987 0.53998
7.51825 6.99243 0.74497
8.11946 6.38723 0.71936
9.45750 5.32235 0.71619
3.12920 7.68411 0.51448
8.58506 7.57938 0.79006
1.31687 6.17859 0.38172
7.05041 7.86990 0.75641
7.41978 3.34263 0.55018
6.77723 8.81250 0.74971
2.52315 6.14910 0.43360
8.73043 8.22364 0.82718
1.68858 5.46279 0.36560
0.53635 2.18438 0.14562
7.17465 5.42410 0.60649
4.75476 3.71112 0.44265
8.49098 6.97499 0.82007
3.83397 4.75794 0.44629
1.68279 8.36113 0.49894
8.36442 6.78073 0.75093
5.48910 6.84544 0.61255
1.89196 2.17155 0.18796
7.20384 9.84250 0.85736
5.11114 8.41675 0.65363
6.04313 7.89005 0.65886
4.60898 3.30215 0.39995
8.28709 5.35632 0.68259
8.29563 1.37103 0.47191
7.09389 5.38476 0.59828
1.05401 1.45889 0.13144
8.38854 5.53038 0.67614
6.71013 6.48722 0.65709
6.97024 3.90196 0.57891
3.62983 4.98545 0.44379
8.79280 8.75653 0.85008
7.25372 1.08563 0.39147
1.12590 7.91733 0.45520
4.07778 1.70755 0.26176
8.86380 0.36708 0.42151
0.47197 1.85575 0.12703
9.61417 7.65043 0.86965
6.79163 4.05126 0.55116
6.31376 8.72521 0.75721
2.70559 5.24708 0.39633
2.48792 0.22250 0.12228
9.42058 7.16714 0.83971
2.98272 1.10233 0.23485
7.75505 7.89380 0.77242
3.93122 1.68103 0.26020
1.39254 3.45446 0.21965
0.10715 7.61271 0.36866
5.44257 9.54231 0.75330
9.75779 3.71434 0.63081
3.69136 8.29400 0.60805
3.57192 1.90792 0.28687
3.44092 8.07180 0.53967
5.20544 6.57494 0.56944
4.40665 1.92744 0.31830
8.79915 3.02504 0.58834
5.05521 1.31771 0.32904
